# This PCD file was generated using the MATLAB® pcwrite function
# from Computer Vision Toolbox®.
# .PCD v.7 - Point Cloud Data file format
VERSION .7
FIELDS x y z intensity
SIZE 4 4 4 4
TYPE F F F F
COUNT 1 1 1 1
WIDTH 1251
HEIGHT 1
VIEWPOINT 0 0 0 1 0 0 0
POINTS 1251
DATA ascii
3.258611 3.749179 0.173331 21.459976
5.172153 3.561166 0.152872 9.079167
5.340819 3.445096 0.162147 2.937500
-1.151468 -1.593299 0.196105 5.000000
-0.832291 -1.684328 0.195677 28.000000
-1.236215 -1.305461 0.158757 25.307692
-1.270679 -0.898301 0.196560 28.000000
0.995901 -1.150171 0.359145 11.000000
1.108181 -1.040557 0.358595 68.500000
3.907727 -1.568884 0.192487 2.000000
1.378704 -0.731475 0.166662 18.250000
1.726669 -0.717049 0.371774 68.000000
2.091705 -0.732107 0.368935 41.333332
9.118779 -1.689339 0.212301 55.750000
2.103820 -0.661944 0.319473 6.000000
9.088354 -1.410209 0.122169 27.444445
9.101831 -1.432971 0.124122 1.000000
-4.636112 0.866553 0.366052 9.000000
-3.260756 0.816344 0.143447 4.400000
-1.606990 0.607946 0.279760 34.000000
-1.490568 0.590557 0.173824 21.000000
9.131241 -1.004209 0.170731 70.000000
9.125793 -1.202451 0.271868 32.099998
-1.593767 0.615372 0.342861 17.142857
-1.462789 0.642379 0.318595 1.000000
1.417638 0.586316 0.327088 94.588234
9.136816 -0.623481 0.193923 56.142857
1.497883 0.626776 0.349957 6.000000
9.181322 0.182708 0.330578 2.500000
9.201696 0.576053 0.447121 1.000000
9.211582 0.939517 0.440775 4.000000
-7.213776 3.735449 0.243805 12.650001
-7.106390 3.502599 0.235770 20.345085
-3.635507 3.393513 0.172586 60.583332
-3.297584 3.649959 0.108582 1.666667
-3.275722 3.664226 0.215234 6.023261
0.687509 3.277010 0.108656 1.000000
-8.108558 -0.847588 0.175523 1.875000
-8.102211 -0.658476 0.237941 1.000000
-4.520337 -1.107764 0.130445 1.000000
-4.214777 -1.111428 0.345700 92.099998
-3.505084 -1.150311 0.232654 16.666666
-2.951901 -1.182004 0.197668 26.833334
-2.594944 -1.197673 0.194284 13.000000
-2.355677 -1.203338 0.242231 73.245453
-1.070587 -1.625070 0.377944 38.750000
-0.766854 -1.478589 0.362837 35.349998
-4.527447 -0.745308 0.266264 10.916667
-3.359175 -0.811619 0.176171 44.958336
-2.533551 -0.997264 0.234229 25.657410
-2.181518 -1.212157 0.238920 1.000000
-1.785538 -1.064528 0.183323 1.500000
-1.359316 -1.023367 0.136366 1.000000
-0.908685 -1.199850 0.358939 100.000000
-0.798824 -1.410974 0.156866 87.500000
-8.123156 0.245606 0.152584 84.888885
-3.426180 -0.468479 0.229407 93.500000
-2.571260 -0.540022 0.437988 91.000000
-1.929313 -0.549547 0.285465 94.241249
-1.654154 -0.725148 0.283510 71.583336
-1.319910 -0.713378 0.267948 94.074074
-0.995956 -0.964425 0.267140 95.333336
2.197234 -1.154449 0.333803 81.688889
2.700779 -1.180153 0.268170 7.400000
4.196451 -1.575774 0.271796 35.400944
4.471954 -1.570487 0.275642 32.870369
-2.589233 -0.159385 0.454598 24.000000
-1.530727 -0.376044 0.381053 48.666668
-1.205934 -0.303759 0.302804 94.482872
-0.995141 -0.206314 0.294473 93.666664
-8.000067 1.096653 0.291731 96.484337
-3.544986 0.495366 0.324964 1.000000
-2.593493 0.325894 0.279498 54.283333
-2.602119 0.083508 0.279477 71.857147
-1.566196 0.076111 0.269776 86.000000
-1.097923 0.020382 0.268838 81.333336
-1.000718 -0.156387 0.270966 91.000000
-3.597521 0.830638 0.269967 84.833336
-2.693394 0.654478 0.300552 2.750000
-1.948267 0.538987 0.311035 100.500000
-1.547807 0.602867 0.309801 97.500000
-8.018424 1.957571 0.461533 91.385887
-7.959067 1.844366 0.438467 41.725136
-3.458003 1.013376 0.425122 92.590912
-2.491678 1.134133 0.400816 1.000000
-2.186939 0.998580 0.385774 5.137931
-1.962819 0.986713 0.387393 4.000000
-1.404360 0.908649 0.487177 17.000000
-0.859437 0.760018 0.404746 1.666667
2.629280 0.406513 0.451819 1.104278
2.965278 0.351067 0.454212 39.178574
3.109888 0.371378 0.451857 91.500000
-2.605779 1.351332 0.453150 36.650002
-2.166263 1.307471 0.452837 20.600000
-1.303464 1.225427 0.453262 21.250000
-0.968912 1.250981 0.430335 4.000000
-0.808382 1.224026 0.428988 13.333333
2.239576 0.815234 0.472766 88.000000
2.522396 0.722946 0.441599 87.500000
2.919586 0.683039 0.459377 20.111111
3.257299 0.651478 0.456810 21.000000
-7.969821 2.813215 0.470302 100.000000
1.931466 1.105963 0.441122 98.526314
2.312541 1.101568 0.421474 1.000000
2.687366 0.982682 0.464618 25.230770
3.013161 0.945962 0.446221 1.000000
3.321742 0.904086 0.480131 24.727272
9.122537 0.032123 0.488978 23.416666
-7.958810 3.047293 0.497463 24.111111
-4.017165 2.536249 0.495251 57.333332
-3.152513 2.373508 0.480571 47.000000
-7.935827 3.389987 0.497156 2.000000
-3.890226 2.912611 0.496798 64.000000
-3.647261 2.949368 0.496690 21.000000
-3.055531 2.589608 0.469491 1.000000
-2.983267 2.748853 -0.268186 14.000000
-3.488951 3.180306 -0.268865 12.000000
-3.119685 3.226185 -0.331454 38.000000
-3.330389 3.685948 -0.309801 38.714287
-0.783235 3.287269 -0.260055 41.500000
0.155209 3.225522 -0.366465 45.250000
0.511694 3.161170 -0.330172 52.727272
-3.077440 3.936167 -0.305912 72.000000
0.995618 3.195426 -0.387835 60.920834
0.621939 3.798979 -0.494242 7.181818
0.988898 3.796691 -0.330446 36.599998
1.390356 3.775558 -0.402873 5.739130
-8.120816 -0.858985 -0.382087 16.947369
-7.780649 -0.966591 -0.288582 76.500000
-8.114558 -0.632242 -0.455385 8.971429
-5.823054 -1.036848 -0.473757 4.000000
-5.475736 -0.962969 -0.403800 14.634251
-4.568769 -0.979607 -0.490296 7.125000
-4.147582 -1.057940 -0.277233 60.000000
-3.823885 -1.052784 -0.407757 5.000000
-3.264869 -1.109868 -0.380019 19.544117
-3.013788 -1.134316 -0.460305 5.000000
-2.614050 -1.192804 -0.416089 3.333333
-2.321649 -1.211252 -0.399632 9.385417
-1.048905 -1.619913 -0.398526 10.880916
-6.476100 -0.522315 -0.366222 34.608696
-5.574677 -0.538290 -0.409586 24.687937
-5.428833 -0.567098 -0.459527 43.250000
-4.561050 -0.705303 -0.499090 39.583332
-3.186210 -0.722228 -0.446691 2.666667
-2.884382 -0.974955 -0.479689 4.000000
-2.691983 -1.087385 -0.450568 8.420454
-2.100103 -1.212856 -0.436689 13.000000
-1.853425 -1.234150 -0.284860 62.000000
-1.265688 -1.015547 -0.432344 4.000000
-0.890266 -1.208946 -0.455486 2.166667
-2.588488 -0.498180 -0.451074 2.600000
-1.997912 -0.798368 -0.489562 3.960000
-1.899810 -0.806735 -0.388394 45.413685
-1.242129 -0.637150 -0.400638 34.716667
-0.939546 -0.986044 -0.363741 46.838234
-0.126465 -1.007134 -0.411535 1.973684
0.282765 -0.911914 -0.480063 5.000000
0.709570 -1.148010 -0.414158 73.118256
0.973468 -1.176000 -0.301137 68.000000
1.492358 -1.270685 -0.296668 21.000000
1.772676 -1.165498 -0.439496 5.333333
2.214129 -1.183601 -0.477233 2.937500
2.646180 -1.201224 -0.307945 3.000000
3.219258 -1.442744 -0.394085 7.454545
3.436434 -1.461075 -0.413284 11.843985
3.779032 -1.497181 -0.384734 35.518841
4.229560 -1.575792 -0.414840 96.388885
4.469941 -1.590497 -0.425578 21.820587
-1.071174 -0.201996 -0.384952 4.666667
-1.018319 -0.190533 -0.434465 3.333333
0.264072 -0.772907 -0.384041 23.875000
1.702438 -0.825828 -0.426570 3.351961
1.724126 -0.906948 -0.419576 6.194197
3.652542 -1.095945 -0.437604 17.785713
3.895862 -1.133561 -0.368706 11.428572
4.409436 -1.207243 -0.390054 15.222222
4.684492 -1.222727 -0.441754 15.868875
5.023164 -1.214469 -0.432647 26.466667
7.039706 -1.720278 -0.318825 100.000000
7.416797 -1.738670 -0.361617 21.299999
8.270308 -1.782958 -0.403672 1.461538
8.662976 -1.767768 -0.426564 1.000000
8.951964 -1.740595 -0.496076 3.000000
-7.803556 1.108574 -0.496724 17.399122
-1.032242 0.057384 -0.476964 30.000000
-0.974592 -0.086059 -0.324454 88.000000
4.028837 -0.911620 -0.376200 78.000000
4.379751 -0.778277 -0.485289 3.833333
5.051545 -1.001423 -0.332894 91.000000
9.047066 -1.529118 -0.388015 3.500000
-5.817204 1.288000 -0.375719 3.272727
-3.814430 0.863714 -0.492442 4.000000
-3.664477 0.782827 -0.498798 3.666667
-2.764878 0.697112 -0.380281 4.800000
-1.537180 0.637709 -0.362814 50.250000
4.383614 -0.547163 -0.403744 8.800000
4.604950 -0.483564 -0.472507 16.912121
-7.759395 1.891059 -0.490742 34.574074
-5.769216 1.504665 -0.356777 7.000000
-3.111457 1.107275 -0.422918 87.500000
-1.893084 1.023625 -0.408442 69.277779
-1.458188 0.769903 -0.363839 3.000000
-1.005641 0.772070 -0.440314 55.478260
-0.849127 0.702634 -0.443234 92.541664
1.866013 0.559169 -0.448667 95.533333
1.956443 0.540281 -0.441907 98.583328
2.628533 0.408521 -0.493407 98.166664
2.760414 0.369430 -0.427479 62.000000
3.113305 0.373149 -0.424869 46.000000
9.094245 -0.702841 -0.423411 15.375000
-7.750874 2.062629 -0.436515 6.000000
-2.805210 1.310789 -0.429632 93.000000
-2.156766 1.316998 0.051483 80.750000
-1.300186 1.295578 0.053098 23.000000
-0.879765 1.252384 0.049823 67.000000
-0.803299 1.241754 0.058402 28.000000
0.496349 1.182308 0.058777 26.857143
1.006954 1.049498 -0.038188 29.803030
1.221108 1.028953 -0.030471 48.595238
1.870312 0.609674 0.063204 54.200001
1.993513 0.589063 -0.089741 47.833332
2.578134 0.541287 -0.080442 45.722218
3.312997 0.478336 -0.066084 56.393936
9.079546 -0.151563 -0.056364 59.444443
9.097637 -0.349176 -0.111462 76.598892
-7.960476 2.834709 -0.077933 34.250000
-1.261345 1.475034 -0.059836 27.500000
0.516170 1.206938 -0.056738 30.250000
1.147219 1.107115 -0.039595 24.000000
1.251646 1.109393 -0.234053 6.000000
1.915608 1.102991 -0.075473 31.333334
2.321603 1.097650 -0.068441 46.000000
2.886747 1.039506 -0.104999 58.908081
3.353056 1.030025 -0.093361 59.814934
9.111879 0.096053 -0.277438 29.090910
9.136907 0.079328 -0.086624 16.715908
-7.948088 3.052312 -0.063959 19.777779
-5.303987 2.821481 -0.259017 9.500000
-4.023283 2.542149 -0.248945 8.000000
2.335019 1.361380 -0.097623 30.900000
9.137033 0.499321 -0.082861 16.393131
-7.934478 3.377258 -0.087456 27.749998
-5.295554 3.005572 -0.083719 16.257460
-3.788118 2.936577 -0.052583 23.952913
-3.680616 2.962583 -0.055824 27.906733
4.850646 1.494323 -0.107082 81.371399
5.060451 1.589182 -0.118382 67.017303
5.349640 1.498375 -0.138860 49.354053
7.274254 1.373695 -0.152991 27.275877
9.148146 0.901632 -0.042049 48.000000
-5.221677 3.362375 -0.149840 58.926735
-3.575255 3.339730 -0.175315 38.062500
-3.111279 3.219751 -0.150822 46.510681
4.541524 2.161566 -0.166518 45.388889
5.012167 1.962518 -0.154705 8.000000
7.249652 1.390939 -0.041894 24.000000
7.555727 1.377994 -0.073935 13.971743
7.916698 1.358077 -0.076342 32.247223
8.317571 1.337094 -0.087488 33.343754
8.727001 1.318202 -0.158981 5.670139
9.137058 1.207290 -0.179453 12.036904
-5.228739 3.733025 -0.095975 13.375000
-3.600058 3.454163 -0.109051 14.000000
-0.751835 3.274414 -0.199527 33.398987
0.199036 3.251347 -0.114313 31.000000
0.515533 3.172564 -0.126153 21.000000
0.953854 3.006179 -0.152991 26.000000
1.124992 3.038785 -0.165540 71.333336
1.870542 3.001299 -0.174869 82.500000
2.033496 2.952779 0.033014 73.500000
5.027880 2.473705 -0.118354 56.834080
5.025753 2.215413 -0.111632 59.036770
-3.007657 3.978993 -0.352597 8.222222
-0.704590 3.499870 -0.275728 7.894737
0.185090 3.512213 -0.200032 33.485348
1.192445 3.149235 -0.179078 30.333334
1.682062 3.109551 0.035866 71.666664
2.163756 3.012002 -0.126004 44.000000
2.944883 3.064086 -0.035934 84.474998
3.139207 3.009294 -0.017064 20.500000
4.032533 3.006675 -0.085255 94.033333
4.500247 2.860672 -0.156864 6.054545
5.026921 2.547089 -0.043460 1.000000
0.259496 3.858750 0.023781 47.000000
0.596508 3.741193 -0.088551 18.750000
0.956445 3.716524 -0.104336 2.125000
1.410849 3.698257 -0.279662 7.333333
1.780078 3.658365 -0.129778 74.750000
1.986428 3.658422 -0.087059 2.571429
2.594016 3.645042 -0.124335 32.624073
2.907428 3.563039 -0.101552 27.236052
2.741493 3.706638 -0.111894 27.909382
2.973871 3.695639 -0.168933 110.507942
3.336622 3.666354 -0.152886 100.312500
4.149136 3.599757 -0.307799 5.500000
4.703449 3.623554 -0.186071 106.000000
4.940012 3.605958 0.021604 11.000000
5.266785 3.563967 -0.100149 4.666667
-8.084557 -0.571055 -0.078442 27.833334
-5.438687 -1.051167 -0.096861 2.729167
-4.529719 -0.973237 -0.116428 20.299999
-4.162439 -1.024051 -0.113371 31.400000
-3.838809 -1.045243 -0.129281 65.728867
-3.269232 -1.081511 -0.184272 6.778670
-2.969427 -1.132265 -0.186404 8.373232
-2.601909 -1.192022 -0.098536 15.107142
-2.335236 -1.205927 -0.140702 10.903727
-1.237080 -1.495408 -0.125777 76.539680
-1.038907 -1.624241 -0.178337 35.250000
-6.430558 -0.523025 -0.190053 106.333336
-5.574613 -0.537129 -0.188966 133.727280
-5.410821 -0.568773 0.010651 100.000000
-4.555281 -0.737154 -0.055928 2.500000
-2.933837 -1.088231 -0.131612 20.812500
-2.664744 -1.051017 -0.134971 13.000000
-2.128323 -1.205804 -0.162142 10.166667
-1.813650 -1.177697 -0.166912 38.232990
-1.299775 -1.202725 -0.147144 3.747222
-0.853686 -1.212967 -0.142082 2.000000
-2.572703 -0.488587 -0.157087 25.875000
-1.964232 -0.482449 -0.193334 54.500000
-1.795298 -0.671657 -0.193971 44.666668
-1.240068 -0.603630 0.007528 97.875000
-0.915196 -0.961802 -0.228023 35.750000
-0.098755 -0.974917 -0.078532 81.000000
0.266325 -0.868292 -0.031821 2.000000
0.463906 -1.128351 -0.198037 25.466667
1.101022 -1.190838 0.002723 99.000000
1.479821 -1.308892 -0.233540 43.500000
1.776304 -1.208665 0.013984 2.000000
2.260174 -1.219628 -0.083843 2.375000
2.635923 -1.247197 -0.219911 4.333333
3.174957 -1.428038 -0.235894 52.523026
3.449183 -1.442296 -0.170118 76.666672
3.798521 -1.482057 -0.260768 62.000000
4.153285 -1.566730 -0.202623 21.461538
4.720219 -1.597799 -0.007517 99.750000
4.985577 -1.599856 -0.118080 40.944443
6.566315 -1.877086 -0.093038 9.625000
-1.153906 -0.409095 -0.084231 45.055557
-0.989526 -0.194056 -0.369798 1.000000
0.265750 -0.766913 -0.243879 43.358387
1.706460 -0.819540 -0.260034 100.000000
1.738373 -0.853539 -0.274526 47.500000
3.632174 -1.115710 -0.291923 46.750000
3.892992 -1.088069 -0.311125 46.125000
5.040854 -1.451315 -0.193909 44.666668
6.565268 -1.734905 -0.205704 45.375000
7.047830 -1.718779 -0.010032 70.666664
7.425769 -1.736384 -0.011351 68.750000
7.852591 -1.757467 -0.006272 34.857143
8.218489 -1.772405 -0.256279 62.250000
8.603724 -1.774128 -0.199127 2.000000
8.965068 -1.709563 -0.134370 17.100000
-0.987459 0.122168 -0.128903 88.333336
-0.921240 -0.004727 -0.125729 5.333333
3.614852 -0.872236 -0.174779 3.357372
3.951808 -0.917278 -0.070407 3.166667
4.224207 -0.774668 -0.083180 3.000000
4.839983 -1.002249 -0.197986 4.051282
9.063891 -1.510898 -0.179296 27.342857
-5.809601 1.308452 -0.172243 32.937500
-3.570776 0.808196 -0.015081 65.500000
-3.176961 0.901503 -0.007206 57.000000
-2.773512 0.776401 -0.118563 81.250000
-1.524972 0.646347 -0.113019 79.430069
4.349662 -0.501009 -0.107332 80.483978
9.088697 -1.295770 -0.146184 9.650794
-7.037271 1.805313 -0.145075 51.250000
-5.761290 1.503493 -0.132408 5.000000
-2.612073 1.203763 -0.198274 5.508333
-1.433232 0.973321 -0.148608 2.111111
-1.122107 0.869359 -0.181446 4.507936
-0.839019 0.725335 -0.254052 2.761905
1.863144 0.558168 -0.305629 23.166668
1.995632 0.533570 -0.088131 1.750000
2.614504 0.425959 -0.181407 27.000000
2.757040 0.378933 -0.165742 78.595238
9.091609 -0.712576 -0.160766 82.929626
-2.938322 1.357973 -0.297538 92.250000
-2.608817 1.348022 -0.170255 103.963249
-2.147956 1.326720 -0.176080 64.588234
-1.309313 1.324833 -0.113779 76.000000
-0.905012 1.261714 -0.200005 79.755409
-0.801029 1.223377 -0.207331 11.438889
0.530606 1.151627 -0.107191 90.599998
0.987426 1.036164 -0.184651 94.448418
1.375966 0.938284 -0.209076 82.977776
1.830127 0.714372 -0.217238 71.616669
2.067822 0.694735 -0.231173 58.908333
2.552512 0.538885 -0.179567 37.532051
3.021335 0.750912 -0.292879 69.800003
3.309182 0.513129 -0.210167 44.072220
9.079330 -0.190370 -0.222028 43.500000
9.106815 -0.327182 -0.117035 6.500000
-1.269940 1.489513 -0.119163 5.000000
-1.155401 1.459137 -0.123649 61.000000
0.545103 1.203659 -0.124878 60.571430
1.005721 1.149763 -0.130066 74.199997
1.446846 1.119891 0.367519 17.000000
1.859075 1.095384 0.401180 29.500000
2.272279 1.185413 0.355264 49.285713
2.542978 1.025191 0.337433 48.958336
2.903913 1.004811 0.322117 53.500000
3.358021 0.993495 0.294938 39.000000
9.123593 0.093137 0.353157 51.255554
9.140231 0.064233 0.330894 43.688889
-4.029015 2.563721 0.314485 43.500000
2.325385 1.344521 0.347140 95.180550
9.142237 0.475049 0.337584 84.793335
-3.977543 2.898592 0.313634 35.000000
-3.570758 3.017772 0.401401 46.625000
5.250701 1.580866 0.393899 33.666668
5.367318 1.500781 0.353341 50.263634
7.262985 1.383825 0.350985 46.738892
9.165254 0.892429 0.332153 39.277775
-3.981570 3.240301 0.300349 37.811363
-3.373257 3.246386 0.330522 37.495514
-3.137277 3.225693 0.382213 55.706520
-2.725317 3.241784 0.144542 1.000000
-2.326289 3.223933 0.315120 26.388887
-2.098211 3.209940 0.486095 6.571429
5.276163 1.851072 0.468852 5.400000
7.250999 1.403997 0.311284 32.887142
7.548088 1.389767 0.142181 3.571429
7.905499 1.369988 0.118030 60.833332
8.308496 1.350308 0.241533 17.144522
8.746223 1.324488 0.401736 21.750000
9.156822 1.214667 0.232961 29.764042
-3.166430 3.593694 0.257857 95.734291
0.212765 3.256539 0.260209 63.254627
0.611046 3.150992 0.210098 33.111111
0.919448 2.974673 0.264888 30.434698
1.110495 2.967816 0.226653 53.004166
1.865899 2.986910 0.239510 57.897541
2.033790 2.958862 0.312090 31.225000
5.293090 2.257115 0.279532 45.875000
-3.046534 3.955350 0.305920 29.700001
-2.802330 3.992621 0.321127 35.895836
-1.051079 3.806407 0.308743 56.666668
0.200715 3.462559 0.300141 21.385715
0.621338 3.286461 0.346448 14.000000
0.735771 3.285980 0.228474 15.234374
1.370137 3.325116 0.209701 15.607142
1.763832 3.173579 0.212590 38.717411
2.204189 2.970915 0.088696 27.444445
2.616150 3.170367 0.250425 12.500001
3.005247 3.009939 0.317929 10.833333
3.112969 2.939360 0.305218 9.000000
5.303198 2.543179 0.103704 24.666666
0.326890 3.821369 0.220394 24.625000
0.468231 3.827394 0.228886 28.166666
1.393320 3.635545 0.235168 29.166666
1.764452 3.583863 0.107896 54.500000
2.070470 3.519049 0.107941 16.000000
2.616565 3.622207 0.344701 56.000000
2.920481 3.477658 0.300776 77.767929
3.285874 3.488913 0.085095 1.000000
3.913115 3.367073 0.193063 5.800000
4.004895 3.378150 0.085154 5.000000
2.706346 3.721541 0.295786 8.000000
3.200585 3.686331 0.105795 26.285715
3.293563 3.691344 0.400678 98.083328
4.199556 3.651244 0.371020 66.333336
4.666644 3.640565 0.347903 3.750000
5.078535 3.609841 0.320891 2.666667
5.309699 3.568699 0.284961 89.455246
2.634773 0.417566 0.141126 2.833333
2.746690 0.381910 0.103342 11.000000
2.563939 0.558218 0.315303 4.000000
9.094004 -0.148536 0.397926 25.000000
9.138633 0.026446 0.178243 1.909091
8.706676 1.330476 0.286927 7.625000
5.243646 2.317304 0.288076 6.964286
0.662026 3.307047 0.267525 32.782860
0.842939 3.476982 0.201325 30.779314
5.254847 2.622714 0.215111 32.706745
-1.220605 3.941892 0.246701 93.856377
4.699638 3.570739 0.229948 97.025002
-6.519447 -0.510794 0.097076 69.928574
-3.604628 -1.030573 0.483059 12.200000
-3.108435 -1.162526 0.315452 4.814286
-2.822503 -1.175727 0.284876 28.250000
-2.372062 -1.178428 0.300343 4.712698
-2.153020 -1.206526 0.289797 21.351665
-6.800649 -0.307786 0.280120 39.818279
-6.500583 -0.480304 0.249568 60.765110
-5.621949 -0.502522 0.362810 17.379999
-3.774288 -0.657805 0.348280 13.000000
-3.717939 -0.792198 0.228919 18.986528
-2.627971 -1.036744 0.207247 23.844387
-2.261995 -1.016199 0.276216 23.836411
-1.019315 -0.995351 0.299234 4.000000
-0.883503 -0.997307 0.195183 28.687500
-2.603414 -0.488207 0.092016 22.000000
-1.388183 -0.685009 0.093361 72.769234
-1.144167 -0.607940 0.284231 1.133333
0.206432 -0.762479 0.227088 4.000000
0.394104 -0.777612 0.243215 32.799999
3.261271 -1.532236 0.345657 98.065216
3.642297 -1.546522 0.325572 54.324188
0.284134 -0.710833 0.221877 46.091007
0.616072 -0.771436 0.196230 8.865583
3.775518 -1.099324 0.243537 4.843137
3.949291 -1.002573 0.184527 5.244589
-0.965480 0.113310 0.159774 25.681625
-0.613437 -0.073414 0.089685 42.571430
4.015645 -0.821996 0.089955 22.285715
-3.936880 1.024945 0.319460 35.041668
-1.541228 0.634609 0.138927 1.250000
0.475742 0.614182 0.086664 20.785715
0.650973 0.584530 0.421282 50.055557
0.465376 1.190989 0.205842 1.000000
1.178116 1.063673 0.151133 90.196968
1.283547 1.164309 0.152954 51.333336
2.877568 1.064554 0.188463 100.000000
-5.325507 2.620012 0.083736 17.133333
1.717013 1.693418 0.335178 27.000000
-7.377495 3.553384 0.428043 30.799999
-7.312323 3.712234 0.393206 35.000000
-1.280650 3.140387 0.286437 34.138462
-1.084670 3.240301 0.357329 37.466667
-2.027340 3.957704 0.335721 52.500000
-0.723008 3.570451 0.323579 52.333332
0.184810 3.977518 0.152899 83.125000
-8.047424 -0.807482 0.187955 35.000000
-7.787497 -1.048366 0.193771 52.875000
-5.610754 -1.029908 0.200828 49.250000
-8.117088 -0.449055 0.208722 45.125000
-6.489317 -0.682732 0.079976 50.750000
-5.481590 -0.942326 0.081643 51.333332
-4.591084 -0.867084 0.195396 12.571428
-4.465753 -0.943253 0.111424 76.000000
-4.010645 -1.047664 0.103449 31.636364
-3.563112 -1.085865 0.203824 10.272744
-3.160940 -1.117230 0.200645 6.011905
-2.782092 -1.156049 0.085139 3.000000
-2.360236 -1.194502 0.139578 5.615385
-2.151553 -1.204715 0.156080 55.596588
-6.472909 -0.475052 0.323695 9.000000
-5.505962 -0.546987 0.199110 76.000000
-4.666225 -0.679656 0.193243 52.823528
-3.950842 -0.637821 0.186799 3.500000
-3.718592 -0.659792 0.218424 51.645832
-2.645429 -1.032497 0.175295 41.333332
-2.142251 -0.777856 0.223491 40.369045
-1.954262 -0.794343 0.280284 4.666667
-0.996504 -0.977828 0.093708 41.333332
-0.906543 -1.003662 0.087759 20.071428
0.224821 -1.118476 0.081899 1.000000
0.329516 -1.137336 0.080173 11.000000
1.169663 -1.278160 0.140678 16.319445
-8.130627 0.342283 0.140183 1.166667
-2.595492 -0.488337 0.246429 24.000000
-1.830288 -0.800143 0.302852 87.370369
-1.247909 -0.578366 0.251935 91.644447
0.252460 -0.807264 0.319206 101.045456
0.454718 -0.901112 0.227278 68.475105
0.768800 -0.852634 0.221578 51.173298
1.163093 -1.069212 0.283852 18.790001
1.765305 -1.157324 0.225191 65.948830
2.074083 -1.178023 0.222665 20.579365
2.453392 -1.194410 0.226212 14.607142
2.763570 -1.225668 0.074673 14.800000
3.197608 -1.464559 0.074408 21.666666
3.564937 -1.484854 0.225966 97.312500
4.020974 -1.575349 0.270959 91.491455
6.554849 -1.731390 0.229158 91.882538
6.721999 -1.724528 0.385166 82.000000
-0.688790 -0.182314 0.233481 86.492065
0.281290 -0.706801 0.246683 71.272728
0.659539 -0.764656 0.255977 1.333333
0.873511 -0.790605 0.264613 30.299999
1.155724 -0.810223 0.269232 70.333336
3.724953 -1.116073 0.201412 14.571428
4.078929 -1.082438 0.192965 15.000000
4.530608 -1.227864 0.190205 7.000000
4.918838 -1.200507 0.187438 89.000000
6.901652 -1.736553 0.183915 86.000000
7.592389 -1.775660 0.494659 99.941177
8.032031 -1.799916 0.486105 99.000000
8.395761 -1.814879 0.457588 15.934783
8.902693 -1.747858 0.373959 22.000000
-7.812129 1.153356 0.374131 41.333332
-0.829656 0.087188 0.490162 50.000000
-0.667288 -0.030806 0.411144 39.111111
4.276264 -0.629307 0.463578 1.916667
4.422771 -0.666229 0.478572 11.777778
5.049005 -0.959155 0.422859 36.625000
9.004539 -1.598718 0.469800 12.000000
-5.839367 1.346581 0.436715 47.333332
-3.935107 0.995949 -0.375545 9.000000
-3.777162 0.875078 -0.444138 14.600000
-2.763552 0.725268 -0.406274 32.000000
-1.551234 0.658613 -0.384025 39.666668
4.328877 -0.527561 -0.425434 26.083334
4.439048 -0.522583 -0.483576 50.500000
9.071210 -0.925355 -0.388869 3.000000
-7.775833 1.828255 -0.374779 12.000000
-2.177646 1.067986 -0.335178 14.000000
-0.856136 0.745586 -0.455541 5.777778
0.478926 0.529430 -0.451500 5.000000
0.649150 0.581950 -0.367071 32.000000
1.043646 0.708737 -0.491765 5.166667
2.889102 0.424450 -0.463376 4.250000
3.028358 0.377956 -0.496971 9.433333
9.085268 -0.653838 -0.361695 45.000000
-7.743346 2.374815 -0.449714 1.935484
-7.198390 2.435179 -0.467899 15.933333
-2.225020 1.321834 -0.450336 11.636364
-2.166688 1.323255 -0.406951 4.758333
0.496511 1.168080 -0.454608 88.593124
0.869620 1.032981 -0.489505 71.491539
1.165133 1.032555 -0.427870 15.000000
1.908274 0.960883 -0.385624 4.000000
2.686677 0.557160 -0.459074 10.804318
3.308990 0.462985 -0.489685 9.219048
3.337748 0.488538 -0.499745 10.796296
9.074055 -0.270643 -0.484037 22.600927
-7.962130 2.671207 -0.491934 14.640152
-7.181522 2.465112 -0.485210 4.000000
1.272254 1.176992 -0.482493 55.299999
1.936411 1.092747 -0.415748 76.178574
2.328580 1.137236 -0.405422 79.071426
2.897623 1.071923 -0.389138 16.000000
9.115900 0.132657 -0.394049 1.636364
-7.949132 3.141424 -0.402978 2.000000
-5.319075 2.651175 -0.410600 1.000000
1.722356 1.761582 -0.363020 47.000000
2.319240 1.410505 -0.472535 1.000000
3.002373 1.306785 -0.470247 9.857142
5.552104 1.293666 -0.471419 7.500000
9.126535 0.537659 -0.475386 34.000000
-7.934374 3.600356 -0.389140 36.250000
-7.925046 3.518979 -0.487809 96.125000
-7.230129 3.516975 -0.395772 6.000000
-3.571877 3.034541 -0.458573 92.000000
-3.551918 3.056412 -0.452565 84.888885
1.184362 2.368809 -0.474532 36.000000
1.232085 2.358760 -0.487881 27.333334
4.546817 1.486949 -0.091437 69.333336
4.950140 1.575135 -0.088015 63.500000
5.319528 1.496642 -0.066253 32.000000
5.671834 1.428613 -0.093532 82.400002
6.146245 1.434408 -0.076213 43.000000
6.503873 1.408779 -0.065209 27.250000
6.909783 1.387816 -0.288571 43.599998
7.299520 1.363685 -0.168468 34.166664
7.710944 1.346819 -0.157008 44.825001
7.915177 1.335441 -0.144173 40.700001
9.135073 0.942607 -0.132741 41.500000
-7.906305 3.946738 -0.123390 56.974998
-3.568258 3.284246 -0.189924 48.055557
-3.299158 3.202265 -0.181813 63.166668
-3.086824 3.258798 -0.076810 18.000000
1.138247 2.440042 -0.198680 34.875000
1.346133 2.422567 -0.291968 27.000000
4.251637 2.296690 -0.259839 5.333333
5.006084 1.908937 -0.249405 9.000000
8.127806 1.322635 -0.120210 35.000000
8.519258 1.297495 -0.326258 3.000000
8.913862 1.272802 -0.311525 5.600000
9.165514 1.197032 -0.185176 6.666667
-3.509035 3.904237 -0.179903 20.716667
-1.715183 3.508965 -0.045308 16.750000
-1.268425 3.311837 -0.076625 13.884921
-0.805926 3.296156 -0.121829 71.866669
0.285927 3.238055 -0.097509 37.000000
0.678589 3.145058 -0.118497 30.083332
1.027353 3.030301 -0.301776 5.000000
2.013579 2.961725 -0.138969 36.611111
2.140213 2.959865 -0.172332 19.765118
4.288446 2.423705 -0.185298 11.469430
-2.358301 3.982948 -0.194942 8.467904
-2.031275 3.966761 -0.157985 37.111069
-1.634142 3.943830 -0.128142 44.983551
-0.710163 3.536560 -0.129865 48.856831
0.273817 3.567947 -0.147340 58.485302
2.203126 3.047837 -0.173158 73.323158
2.895086 3.098777 -0.210446 95.423927
3.156412 2.961385 -0.211235 66.748695
3.343004 2.976391 -0.214286 61.060707
4.021173 2.993583 -0.102185 68.250000
4.458390 2.849887 -0.106173 33.000000
0.181862 3.878086 -0.114737 33.500000
0.395087 3.800333 -0.168289 20.611113
0.827939 3.723835 -0.240613 6.680553
1.314275 3.716420 -0.206996 11.916823
1.678054 3.665153 -0.133937 17.820770
2.463478 3.640460 -0.207001 13.712855
2.677276 3.677372 -0.234365 12.256214
3.147564 3.679459 -0.150564 15.307937
3.701899 3.583773 -0.224922 19.618952
4.090935 3.507783 -0.110485 22.000000
4.847558 3.408161 -0.127120 26.200001
3.137747 3.702616 -0.137745 25.500000
3.754610 3.648789 -0.146555 37.333332
3.969400 3.635853 -0.158922 90.285713
4.345589 3.621865 -0.099396 63.000000
4.865672 3.598132 -0.273555 33.199997
5.051193 3.586757 -0.161397 53.676823
-5.611139 -1.028327 -0.189364 3.266546
-8.107965 -0.392754 -0.309081 3.538462
-6.466150 -0.489822 -0.285769 47.707500
-5.529661 -1.034510 -0.161550 13.250000
-4.581511 -0.814490 -0.081346 73.500000
-4.432745 -0.922963 -0.271842 27.000000
-3.961473 -1.012043 -0.057408 53.000000
-3.564877 -1.049561 -0.046285 15.000000
-3.240512 -1.068920 -0.162144 81.893517
-2.781627 -1.146671 -0.089502 1.000000
-2.364540 -1.187154 -0.224214 2.147619
-1.969827 -1.210938 -0.288579 37.183334
-6.445208 -0.459479 -0.104152 55.500000
-5.474490 -0.522739 -0.349965 26.894737
-4.603547 -0.695545 -0.187437 26.908854
-2.718915 -1.035260 -0.193613 74.969833
-2.316056 -1.018122 -0.205552 89.371460
-2.084343 -1.102776 -0.341884 41.742859
-1.631128 -1.219550 -0.266107 7.690476
-1.173875 -1.050329 -0.291887 8.011111
-0.866463 -0.978143 -0.289585 92.410416
1.176264 -1.291641 -0.108546 63.000000
6.246310 -2.068135 -0.103929 19.000000
-2.567956 -0.474093 -0.203801 21.000000
-2.263809 -0.479988 -0.201687 32.833332
-1.227103 -0.565397 -0.199393 30.988886
0.265247 -0.779812 -0.253868 6.073348
0.328763 -0.821247 -0.279066 3.606226
1.013285 -0.846919 -0.178551 5.625000
1.141155 -1.020120 -0.194520 4.000000
1.756751 -1.180557 -0.208712 56.827080
2.057828 -1.200727 -0.214071 14.375000
2.451049 -1.224279 -0.290321 81.031250
2.797866 -1.284152 -0.113370 65.000000
3.213617 -1.441643 -0.104053 52.000000
3.585116 -1.435006 -0.293972 1.333333
3.964999 -1.564224 -0.177905 47.129864
4.488512 -1.597496 -0.186473 8.495536
4.791579 -1.606195 -0.216026 9.908334
5.117563 -1.637706 -0.294252 23.968750
6.562325 -1.750108 -0.117863 92.333336
6.759212 -1.726036 -0.088790 39.500000
-0.655770 -0.193311 -0.275057 1.000000
0.291871 -0.698909 -0.030157 1.000000
0.596418 -0.693575 -0.068830 2.750000
0.946315 -0.764025 -0.092004 1.000000
1.167380 -0.805137 -0.297722 21.529411
3.698792 -1.128897 -0.122544 23.000000
3.996660 -1.034176 -0.121583 88.333336
4.637743 -1.216373 -0.115350 11.000000
4.764465 -1.178150 -0.191325 2.375000
6.963194 -1.735472 -0.191219 2.000000
7.235183 -1.751105 -0.232494 1.000000
7.623755 -1.772297 -0.277174 1.000000
8.452925 -1.768198 -0.071544 4.066667
8.878798 -1.755459 -0.203321 29.770563
9.066843 -1.712345 -0.218966 62.511108
-7.818559 1.206915 -0.237751 64.007538
-0.631204 -0.005409 -0.261371 76.553032
3.644104 -0.680038 -0.198914 32.705555
4.256472 -0.566255 -0.215200 7.500000
4.804450 -0.950402 -0.230940 44.523811
9.037123 -1.501715 -0.247167 46.842857
9.086906 -1.666388 -0.362044 54.000000
-5.823429 1.288939 -0.301535 19.768749
-3.669436 0.845422 -0.126141 58.000000
-1.536870 0.658653 -0.196724 7.944445
4.331447 -0.504313 -0.188583 14.233334
4.474262 -0.488020 -0.185718 51.250000
9.059118 -0.910339 -0.239510 1.200000
-7.084376 1.703417 -0.186636 1.000000
-3.893529 1.436176 -0.078469 3.000000
-2.651283 1.180959 -0.214810 42.638889
-2.606322 1.281996 -0.264036 42.299999
-2.160836 1.084663 -0.279797 41.400002
-1.275033 1.056010 -0.295772 45.750000
-0.852811 0.747473 -0.305660 59.125000
0.489360 0.554866 -0.090598 23.000000
0.651630 0.565918 -0.165255 35.500000
1.104342 0.629052 -0.152174 41.049999
1.350848 0.611259 -0.223106 21.082010
2.906622 0.462876 -0.194700 25.666666
3.030327 0.462576 -0.185858 5.309524
9.081214 -0.675065 -0.177565 4.435897
-7.962186 2.414866 -0.226980 4.087121
-2.623671 1.502940 -0.227343 4.599432
-2.404348 1.343884 -0.203944 2.033333
-2.083883 1.329808 -0.222336 44.625000
-1.584941 1.300596 -0.215611 58.635715
-1.302749 1.221872 -0.206865 61.285713
0.502346 1.173095 -0.201520 75.625000
0.813710 1.079958 -0.190468 87.166672
1.236870 0.935694 -0.184244 88.388885
1.540736 0.956140 -0.176986 79.079361
1.993758 0.963120 -0.230472 7.733334
2.433917 0.896510 -0.213751 27.977777
2.761061 0.738893 -0.254556 1.791667
3.230069 0.499859 -0.192007 5.316667
3.337559 0.477903 -0.191584 3.553490
9.084941 -0.256322 -0.196912 1.000000
1.357512 1.146395 -0.218796 5.377779
1.639277 1.111966 -0.092252 3.000000
1.981352 1.106660 -0.177498 98.651787
2.352436 1.184951 -0.176492 97.722221
2.846206 1.113826 -0.229932 41.972221
3.073095 1.112356 -0.223738 81.202797
9.121588 0.147432 -0.358808 65.125000
-5.318935 2.653175 -0.212444 37.348919
2.331508 1.415668 -0.210554 15.111111
5.592691 1.288551 -0.215122 60.185001
9.142372 0.546515 -0.220516 76.650787
-7.917453 3.732913 -0.229581 82.441666
-3.556491 3.055609 -0.094155 4.000000
-3.555301 3.032409 -0.246532 5.666667
5.276548 1.612789 -0.109562 1.000000
5.594333 1.390682 -0.181838 22.757141
6.232394 1.434511 -0.159704 80.750000
6.488213 1.413341 -0.243235 75.853172
6.913804 1.393660 -0.249191 85.620728
7.315461 1.370051 -0.261406 89.240746
7.719026 1.354744 -0.196424 81.173080
9.155037 0.952783 -0.285700 100.000000
-7.910598 3.809799 -0.202567 7.500000
-4.095727 3.401307 -0.193956 7.500000
-3.600650 3.324396 -0.101885 4.000000
-3.251799 3.231398 -0.166453 3.500000
-2.950562 3.294346 0.334838 19.500000
-2.482325 3.247118 0.259847 100.000000
-2.099030 3.221600 0.219632 56.000000
-1.708862 3.182226 0.199681 22.000000
-1.403898 3.143397 0.290558 54.833332
1.357426 2.458500 0.284882 50.291664
5.271106 1.944625 0.266346 52.875000
7.909561 1.345046 0.250380 55.125000
8.115835 1.331205 0.236514 55.166664
8.511358 1.307939 0.218358 50.187500
8.901979 1.283134 0.279989 32.182541
9.170256 1.217635 0.329696 21.166668
-3.620929 3.541878 0.218953 9.000000
-3.175014 3.660581 0.326048 45.750000
-1.245054 3.214661 0.290169 53.190475
-1.080310 3.244452 0.213761 31.500000
0.203133 3.272121 0.429747 9.600000
0.777906 3.043483 0.336958 29.000000
1.019855 2.952378 0.304304 8.666666
2.012884 2.953454 0.212401 20.000000
2.162541 2.949929 0.084809 4.000000
4.215655 2.433276 0.216082 96.666992
5.288933 2.173754 0.228200 59.500000
-3.135540 3.981502 0.283170 24.277777
-1.540509 3.935922 0.416136 3.666667
-1.142198 3.872307 0.204616 35.500000
-1.044661 3.557461 0.252616 21.062218
0.254565 3.600197 0.247311 26.000000
0.655059 3.305552 0.144896 55.431252
1.026203 3.543724 0.189899 22.910675
1.893444 3.282034 0.161589 49.964172
2.394428 3.343522 0.158358 53.906837
3.128718 2.946818 0.170917 58.645729
3.336072 2.910344 0.199042 72.594597
4.661549 2.781980 0.218569 95.660301
0.365381 3.818881 0.214029 60.064148
0.986656 3.739562 0.253296 59.667858
1.258237 3.726336 0.244706 47.142303
1.722812 3.688329 0.267536 46.458851
2.456289 3.633493 0.291523 27.000000
2.785971 3.589833 0.233679 84.142860
3.120569 3.396000 0.241492 37.666668
3.640417 3.421642 0.214856 54.000000
3.821438 3.406285 0.231984 20.549999
3.204268 3.695725 0.126046 39.594231
3.775230 3.657011 0.188737 63.027573
3.900093 3.650787 0.165953 17.821104
4.375713 3.574056 0.103327 6.198412
-5.676545 -1.020231 0.221999 15.020833
-2.486703 -1.003113 0.141052 1.444444
-2.602705 -0.543088 0.248725 3.062500
0.274198 -0.804291 0.250365 36.000000
2.992287 -1.446827 0.262301 37.000000
3.274652 -1.490991 0.279396 31.000000
3.678684 -1.511588 0.315219 11.000000
0.301301 -0.698296 0.333595 84.375000
0.469569 -0.722979 0.341120 100.000000
3.932756 -1.128187 0.246881 100.000000
-5.776704 1.339848 0.212027 72.035034
-2.696419 0.792572 0.027849 23.736841
-2.566693 0.790406 0.073072 4.357143
-5.776313 1.450978 0.193411 10.750000
0.490860 0.509910 0.336657 17.000000
0.645507 0.554051 0.341282 100.000000
-5.337107 2.780561 0.197693 68.333336
-5.180068 2.804193 0.145546 45.000000
5.216413 1.930816 0.221363 91.129631
7.889155 1.349095 0.114816 2.065476
-1.487730 3.571554 0.164725 1.750000
0.761822 3.383241 0.207091 18.708332
2.763077 3.658659 0.228027 3.000000
4.021503 3.588981 0.364748 21.000000
4.863534 3.578475 0.120520 1.000000
5.187456 3.555042 0.119487 1.333333
-6.824465 -0.441953 0.414570 25.750000
-6.506256 -0.501583 0.087487 1.000000
-5.598907 -0.522711 0.236373 34.822075
-5.480581 -0.562022 0.195282 77.469444
1.158516 -1.227059 0.232203 79.183533
1.377125 -1.239465 0.313951 36.937244
-2.567694 -0.486953 0.285584 24.705883
0.641880 -0.755104 0.271488 35.875000
1.123780 -1.035681 0.295166 52.139099
1.441952 -1.030586 0.205467 51.487179
1.728750 -1.088789 0.248918 100.000000
3.813265 -1.554458 0.207254 1.000000
1.404047 -0.786483 0.114702 3.000000
4.457184 -1.223213 0.335121 18.215908
4.676707 -1.231882 0.367988 8.777778
4.448035 -0.708365 0.088441 1.000000
-1.539140 0.636671 0.189098 32.244762
-2.760546 1.297843 0.316855 20.468388
-1.485627 1.004951 0.317934 25.706976
1.306037 0.684041 0.311890 15.203892
1.645392 0.646896 0.177144 9.514956
-1.408887 1.397940 0.212174 10.932098
1.297194 1.151413 0.168389 8.103365
1.931097 1.102687 0.185417 55.183163
2.030651 0.990892 0.124202 30.500000
-7.927816 2.833530 0.203087 35.886028
1.895874 1.124105 0.293922 61.866665
2.111731 1.136643 0.290152 47.236454
-4.011142 2.766665 0.160494 49.538570
-7.164102 3.554332 0.186410 18.015612
-3.994982 2.919054 0.156959 15.961185
-1.106536 3.154071 0.136295 25.390350
-3.453280 3.747882 0.202382 21.758333
-1.721521 3.945746 0.185667 11.000000
0.182946 3.665401 0.197353 1.000000
0.287440 3.864413 0.177102 21.611113
0.405180 3.802131 0.202338 19.968750
-8.123795 -0.853456 0.248849 72.666664
-7.753069 -1.001478 0.146065 4.000000
-5.770614 -1.032484 0.145943 2.666667
-8.102865 -0.370977 0.170561 77.398422
-6.467478 -0.682710 0.178988 50.657146
-4.542256 -0.950823 0.206014 21.666666
-4.114509 -1.053583 0.133306 32.650002
-3.788875 -1.085945 0.144139 6.812500
-3.297413 -1.079697 0.154472 48.285713
-2.985314 -1.150799 0.165227 52.383331
-2.739345 -1.159080 0.202488 18.031250
-8.113125 -0.025738 0.248825 61.000000
-5.568686 -0.521674 0.407246 56.416668
-5.465771 -0.548137 0.266175 6.375000
-4.517421 -0.634182 0.140095 15.000000
-3.731859 -0.664977 0.238162 28.750000
-3.486349 -0.683873 0.321185 8.600000
-2.622151 -1.036537 0.301918 30.615385
-1.255196 -0.895832 0.197132 20.000000
1.150020 -1.234931 0.183748 14.454545
1.396117 -1.256963 0.047713 1.000000
3.192898 -1.496518 0.177783 77.673309
3.352284 -1.526346 0.063573 63.000000
-8.106348 0.379939 0.175367 48.799999
-2.581878 -0.493409 0.185830 49.599998
-1.236172 -0.625354 0.196137 47.750000
0.305275 -0.777646 0.203343 59.000000
0.750669 -0.786044 0.385824 9.000000
1.152988 -0.985844 0.140692 17.071428
1.440997 -1.026770 0.179379 30.444445
1.871963 -1.113191 0.176599 48.187500
2.285916 -1.167112 0.073005 31.666666
2.610072 -1.191678 0.181420 3.529412
3.039793 -1.414982 0.172859 3.890821
3.463403 -1.433125 0.102546 11.241667
3.742691 -1.424463 0.101388 7.305555
6.604722 -1.822886 0.039001 2.200000
7.045359 -1.731296 0.184268 34.833332
7.435612 -1.753432 0.430774 52.000000
7.726061 -1.769535 0.424509 49.333332
-8.055258 0.760987 0.141787 62.333332
0.757303 -0.723997 0.136952 66.571426
1.171091 -0.780439 0.109629 65.416664
1.732344 -0.649045 0.190242 59.571426
1.757087 -0.724721 0.265919 33.000000
3.654496 -1.083776 0.075860 44.666668
3.932657 -1.119162 0.263240 1.000000
4.264140 -1.118008 0.199479 5.000000
4.652763 -1.224711 0.179511 16.181818
5.006258 -1.155559 0.176495 6.700000
7.940235 -1.781529 0.042924 5.000000
8.250013 -1.797214 0.042270 1.000000
8.500416 -1.809224 0.043799 27.000000
-8.032068 1.011430 0.194278 77.300003
0.269228 0.106214 0.191997 84.250000
4.349102 -0.594723 0.303800 75.699997
4.636628 -0.764426 0.280266 98.875000
5.013638 -0.847292 0.204272 32.833332
0.231079 0.258053 0.263091 45.166664
0.514490 0.342594 0.187119 37.966347
9.077559 -0.904707 0.321130 63.411766
-2.792865 1.330186 0.181895 19.622726
-1.356236 1.001063 0.254684 15.272727
0.601160 0.588209 0.047825 26.500000
0.988116 0.735113 0.195585 16.187500
1.426922 0.561605 0.251891 92.800003
1.848212 0.583793 0.335310 96.400002
1.971800 0.554175 0.050594 88.800003
9.052317 -0.349351 0.200036 74.666664
9.095785 -0.548117 0.360513 1.666667
-7.172555 2.452182 0.212559 7.000000
-1.233436 1.485877 0.206096 6.833333
-0.830755 1.247874 0.110560 3.000000
0.477530 1.201511 0.170099 35.000000
0.996835 1.003804 0.473844 33.000000
1.342259 1.033493 0.445365 10.000000
1.920318 1.073958 0.449032 33.583332
2.048031 0.822977 0.485776 19.440475
9.081472 -0.124918 0.435352 99.400002
9.096127 -0.156262 0.458065 91.465363
-7.948683 2.821077 0.493496 62.568523
1.916955 1.123936 0.470527 20.100000
2.145346 1.156266 0.461819 8.571428
2.910357 1.084450 0.452823 9.799999
3.362365 1.025856 0.474105 44.000000
9.125916 0.264239 0.458953 5.000000
9.140318 0.115765 0.446853 12.500000
-4.012414 2.638893 0.474708 47.000000
4.843936 1.483758 0.464509 100.000000
4.977352 1.468542 0.431694 81.166664
5.833349 1.341467 0.463458 44.599998
9.137531 0.659610 0.455034 57.000000
-7.911379 3.772133 0.444709 49.809525
-5.267138 3.342581 0.488074 60.000000
-3.828934 3.018039 0.465045 2.000000
-3.594430 3.026347 0.463879 1.777778
5.089549 1.613740 0.409880 52.000000
5.486959 1.471335 0.464344 68.714287
5.827443 1.450884 0.499202 67.375000
6.282576 1.429267 0.465242 62.019608
6.684305 1.407979 0.482304 63.417645
7.095358 1.384025 -0.411990 4.500000
7.516673 1.367509 -0.401051 10.500000
7.895605 1.346726 -0.368338 42.000000
8.287140 1.323734 -0.364473 65.000000
8.693507 1.300964 -0.476204 32.414772
9.129525 1.075462 -0.475715 35.000000
-7.912107 3.857861 -0.453592 36.000000
-5.731841 3.818122 -0.487976 5.014035
-5.239986 3.399480 -0.463960 14.454546
-3.539392 3.252668 -0.471037 17.782143
-3.147893 3.194313 -0.449449 34.888889
-1.160470 3.165609 -0.487533 84.142860
4.397280 2.243214 -0.484885 20.375000
4.618500 2.157503 -0.487301 36.000000
5.013991 2.067936 -0.497379 26.333332
9.131187 1.273094 -0.485040 3.181818
-3.499220 3.896114 -0.377084 99.000000
-1.695655 3.510537 -0.468526 3.333333
-1.133201 3.253558 -0.459649 5.100000
-0.737903 3.328774 -0.428134 17.250000
0.518094 3.171058 -0.428302 15.500000
0.904654 3.004084 -0.379393 4.000000
2.129067 2.970630 -0.442886 2.833333
3.072132 2.957376 -0.454469 37.166664
3.207732 2.929595 -0.449817 33.400002
4.435038 2.510897 -0.444420 13.000000
5.021345 2.555443 -0.431241 37.000000
5.021235 2.339632 -0.468908 1.000000
-2.189926 3.977390 -0.312991 71.000000
-1.858620 3.953326 -0.423817 11.000000
-0.701089 3.582877 -0.314324 67.222221
0.196831 3.643463 -0.422968 11.333333
2.238174 3.311680 -0.334868 28.500000
2.855827 3.070161 -0.442006 9.500000
3.294962 2.968308 -0.333121 42.000000
4.043913 2.997743 -0.328699 48.200001
4.657868 2.857344 -0.317093 37.833332
4.960574 2.805979 -0.491690 81.000000
0.347502 3.798662 -0.479990 37.541664
2.285308 3.650581 -0.470025 92.117645
2.508442 3.644856 -0.491693 72.099998
2.887255 3.593696 -0.480695 76.333328
3.536522 3.662251 -0.074110 100.000000
3.768165 3.650298 -0.075114 100.000000
4.260649 3.604427 -0.072774 26.000000
5.311937 3.361819 -0.069407 91.166664
3.928768 3.654896 -0.070152 37.500000
4.289601 3.633689 -0.202827 37.500000
4.458311 3.620039 -0.197338 40.333336
5.013473 3.585536 -0.190421 50.250000
5.289337 3.505022 -0.070084 43.500000
-5.821641 -1.026269 -0.178579 38.966667
-8.088064 -0.379905 -0.273768 62.000000
-6.454263 -0.505780 -0.066304 89.727272
-4.464522 -0.947816 -0.067298 49.000000
-4.182858 -0.986482 -0.067412 47.000000
-3.756181 -1.053271 -0.199006 30.666668
-3.385167 -1.072019 -0.302257 5.000000
-2.861066 -1.135670 -0.293600 7.000000
-8.108658 -0.061561 -0.168116 37.000000
-6.447069 -0.472530 -0.367474 45.000000
-5.572269 -0.511169 -0.253152 27.201193
-5.477443 -0.538053 -0.234701 41.397488
-4.503895 -0.643194 -0.403542 100.000000
-2.609636 -1.033553 -0.423541 100.000000
-1.232865 -0.896600 -0.062861 115.599998
1.183404 -1.291090 -0.160883 24.916668
1.371284 -1.300324 -0.211862 32.666668
-8.103588 0.384347 -0.205945 16.535913
-2.570053 -0.486010 -0.265649 4.995039
-1.219931 -0.619304 -0.239456 12.973142
0.323747 -0.745999 -0.246888 20.949999
0.787992 -0.749378 -0.244034 64.780075
1.141469 -0.922659 -0.214213 63.066788
1.631666 -1.213806 -0.198623 46.639427
1.887514 -1.157910 -0.228882 91.531197
2.286669 -1.201246 -0.251585 93.654068
2.661257 -1.224743 -0.269689 71.096741
3.048995 -1.414708 -0.193186 66.846153
3.451428 -1.432187 -0.205953 30.250000
3.753376 -1.450389 -0.218979 30.333334
4.210799 -1.572102 -0.228695 31.666666
4.569245 -1.593843 -0.059804 92.099998
5.020895 -1.532105 -0.141598 4.000000
-8.051762 0.756374 -0.128830 12.933333
0.511863 -0.665121 -0.241055 54.333332
0.843118 -0.727964 -0.227035 72.195946
1.141009 -0.769023 -0.217456 12.141783
1.538235 -0.722681 -0.252116 52.058712
1.769550 -0.760551 -0.292223 41.794529
3.632846 -1.112059 -0.288029 31.625051
3.952669 -1.014883 -0.208071 26.686506
4.817803 -0.991107 -0.235875 31.666666
5.014059 -1.065998 -0.246252 34.799999
-8.017962 1.006642 -0.254642 16.000000
0.334486 0.096648 -0.057925 100.000000
4.021005 -0.643780 -0.053746 32.000000
4.353356 -0.511674 -0.274102 5.545289
4.830797 -0.877056 -0.324902 4.916667
5.021662 -0.886363 -0.235063 22.062500
0.272425 0.507444 -0.300602 32.099998
0.530739 0.314707 -0.231410 63.932350
4.513880 -0.474132 -0.369236 41.500000
9.077688 -0.898114 -0.155397 13.500000
-2.934453 1.367928 -0.368612 6.000000
-0.821007 0.855422 -0.230781 75.371292
0.618969 0.583546 -0.367921 12.142858
0.872687 0.625199 -0.190676 8.193103
1.391739 0.586842 -0.231942 35.230694
1.851065 0.562950 -0.215324 45.115623
2.012105 0.552937 -0.467386 100.000000
2.417093 0.562024 -0.365922 89.011696
9.098430 -0.547373 -0.048468 66.000000
-1.223060 1.519461 -0.048818 1.500000
-0.886815 1.278800 -0.193745 27.333334
-0.811326 1.161422 -0.203244 16.837500
0.549447 1.160841 -0.299339 2.186111
0.893923 1.165346 -0.344846 6.333333
1.408157 1.056706 -0.235190 48.148289
1.935916 1.070924 -0.414505 26.310345
2.122588 0.926664 -0.361225 40.545456
2.650029 0.884857 -0.362005 65.000000
2.970699 0.837583 -0.047400 87.000000
3.318741 0.806474 -0.115035 46.666668
9.090331 -0.137692 -0.054898 1.000000
9.107401 -0.148300 -0.223875 6.502232
-7.952497 2.798479 -0.234269 61.256699
1.945158 1.119672 -0.360574 22.119194
2.156366 1.081772 -0.254932 36.000000
2.754752 1.090750 -0.311611 65.571426
3.007355 1.094671 -0.287635 5.633333
3.348306 1.019128 -0.114171 11.000000
9.131725 0.268274 -0.140029 44.666668
9.142886 0.144334 -0.359335 21.849674
-4.019597 2.600233 -0.043809 75.000000
4.436709 1.502369 -0.044550 34.000000
4.621586 1.478667 -0.310374 2.000000
5.573056 1.323450 -0.174047 4.500000
5.806989 1.334908 -0.265068 50.288734
9.152052 0.659752 -0.287999 78.699997
-5.267402 3.357503 -0.312351 75.326317
4.425492 1.641020 -0.282686 66.250000
4.856701 1.570555 -0.307834 12.461537
5.242720 1.632580 -0.334018 25.694443
5.468368 1.475200 -0.277599 62.840279
5.826378 1.364732 -0.296058 60.404762
6.305832 1.431164 -0.315247 52.770836
6.697644 1.410151 -0.335607 53.380951
7.112088 1.387064 -0.357410 30.523685
7.517143 1.370679 -0.043549 91.666664
7.908992 1.349724 -0.043546 2.000000
8.317039 1.326510 -0.044431 36.500000
8.707790 1.303681 -0.175108 5.305555
9.148178 1.061383 -0.169040 12.250000
-5.415637 3.709122 -0.142956 19.166668
-5.240126 3.414443 -0.252513 3.214286
-3.975971 3.252676 -0.360616 2.571429
-2.907914 3.379218 -0.278515 38.476360
-1.281298 3.156012 -0.358454 73.500000
4.269180 2.350131 -0.042445 9.000000
5.283776 2.004539 -0.042452 31.500000
9.102720 1.282369 -0.045100 17.000000
-1.481675 3.576604 -0.258679 14.000000
-1.075362 3.180634 -0.142610 41.000000
0.658318 3.301758 -0.141268 14.277778
0.904701 2.993134 -0.203635 25.444443
2.118948 2.950576 -0.124353 1.000000
3.279416 2.904877 -0.185178 6.137949
5.299629 2.434108 -0.136562 1.000000
-2.250157 3.980820 -0.194429 3.269841
-1.733423 3.948349 -0.281263 3.589506
-1.418736 3.927098 -0.240274 31.149208
-1.085322 3.918570 -0.290435 36.250000
0.226507 3.673975 -0.044282 43.833332
1.846438 3.457152 -0.044676 41.250000
2.178878 3.323079 -0.178499 25.611111
2.664721 3.112849 -0.164695 23.000000
2.776106 3.112165 -0.160859 77.533333
3.394100 2.976312 -0.144572 9.250000
4.153259 3.076055 -0.139758 49.700001
4.625265 2.917252 -0.260360 4.900000
4.870699 2.750373 -0.194765 6.228836
5.234962 2.797104 -0.198391 2.166667
2.252376 3.653102 -0.218604 5.857143
2.494191 3.643071 -0.112196 1.333333
3.484964 3.390313 -0.182996 21.717648
3.744288 3.499938 -0.156933 91.500000
5.327062 3.235828 -0.227191 73.333336
3.931446 3.655456 -0.213624 91.356941
4.279757 3.635001 -0.215372 83.791664
4.488634 3.627034 -0.218564 17.160683
5.023246 3.587585 -0.232536 73.456352
5.275622 3.527788 -0.238083 90.713249
1.142439 -1.292934 -0.392469 90.000000
1.397016 -1.300248 -0.206601 48.750000
6.268370 -2.062681 -0.172106 89.375000
6.511831 -2.046488 -0.252563 76.730156
0.695088 -0.789541 -0.257564 86.708336
1.290966 -0.954688 -0.352083 92.699997
1.349198 -0.838260 -0.208862 58.928570
1.778400 -1.200910 0.236975 23.500000
3.940217 -1.544111 0.318296 98.000000
4.278561 -1.566732 0.262417 45.000000
4.608830 -1.592538 0.322662 41.000000
5.068595 -1.587915 0.310607 45.750000
6.586352 -1.834923 0.286219 63.083332
7.109458 -1.729418 0.267930 50.500000
1.467925 -0.675734 0.241381 57.266666
4.852005 -1.159774 0.321925 116.800003
4.903186 -1.295262 0.262465 19.000000
7.847894 -1.768745 0.232809 81.000000
